ply
format ascii 1.0
element vertex 1219
property float x
property float y
property float z
property uchar red
property uchar green
property uchar blue
end_header
3.842105 6.684210 -16.168421 7 14 9 
3.907591 6.706271 -16.221783 8 15 11 
3.960396 6.706271 -16.221783 7 14 8 
4.026490 6.728477 -16.275497 7 15 10 
4.079470 6.728477 -16.275497 9 16 10 
4.146179 6.750831 -16.329569 12 20 14 
4.213333 6.773334 -16.384001 9 19 12 
4.266667 6.773334 -16.384001 11 19 13 
4.334448 6.795987 -16.438797 10 19 11 
4.387960 6.795987 -16.438797 13 20 16 
4.441472 6.795987 -16.438797 11 18 12 
4.494983 6.795987 -16.438797 11 21 15 
4.548495 6.795987 -16.438797 11 18 14 
4.617450 6.818792 -16.493961 14 22 16 
4.671141 6.818792 -16.493961 13 19 14 
4.724832 6.818792 -16.493961 9 17 13 
4.810811 6.864865 -16.605406 8 14 11 
4.881356 6.888135 -16.661695 8 16 12 
4.952381 6.911565 -16.718369 12 24 14 
5.023891 6.935153 -16.775427 34 42 33 
5.095891 6.958904 -16.832878 33 38 29 
5.168385 6.982818 -16.890722 33 40 29 
5.223368 6.982818 -16.890722 33 37 29 
5.278350 6.982818 -16.890722 36 40 33 
5.296928 6.935153 -16.775427 34 39 29 
5.279461 6.841751 -16.549496 37 42 33 
5.315436 6.818792 -16.493961 37 42 32 
5.280528 6.706271 -16.221783 40 45 34 
5.315790 6.684210 -16.168421 41 45 34 
5.333333 6.640523 -16.062746 43 46 38 
5.265176 6.492013 -15.703515 45 47 36 
5.299363 6.471338 -15.653503 47 49 39 
5.333333 6.450794 -15.603810 45 46 36 
5.367089 6.430380 -15.554431 42 46 36 
5.400631 6.410095 -15.505363 40 44 32 
5.451104 6.410095 -15.505363 46 49 37 
5.484277 6.389937 -15.456604 53 52 40 
5.534591 6.389937 -15.456604 49 51 39 
5.567398 6.369906 -15.408151 46 48 36 
5.617555 6.369906 -15.408151 49 50 39 
5.667712 6.369906 -15.408151 48 48 37 
5.700000 6.350000 -15.360001 46 49 38 
5.750000 6.350000 -15.360001 47 48 37 
5.800000 6.350000 -15.360001 49 52 39 
5.850000 6.350000 -15.360001 49 51 36 
5.900000 6.350000 -15.360001 51 52 39 
5.950000 6.350000 -15.360001 50 51 37 
6.000000 6.350000 -15.360001 50 51 39 
6.050000 6.350000 -15.360001 49 51 37 
6.119122 6.369906 -15.408151 49 51 39 
6.169279 6.369906 -15.408151 48 50 37 
6.238994 6.389937 -15.456604 50 53 40 
6.289308 6.389937 -15.456604 49 51 36 
6.339622 6.389937 -15.456604 49 53 39 
6.410095 6.410095 -15.505363 49 51 37 
5.945355 5.551913 -13.429509 51 53 40 
5.908356 5.477089 -13.248518 50 52 37 
5.903743 5.433155 -13.142246 49 53 39 
5.946524 5.433155 -13.142246 49 52 36 
6.005362 5.447721 -13.177481 49 53 39 
6.064516 5.462366 -13.212904 50 51 39 
6.107527 5.462366 -13.212904 49 53 38 
6.150537 5.462366 -13.212904 49 50 37 
6.176944 5.447721 -13.177481 50 52 38 
6.236559 5.462366 -13.212904 51 50 36 
6.279570 5.462366 -13.212904 50 52 39 
5.772397 4.920097 -11.901211 50 51 35 
5.797101 4.908213 -11.872464 48 51 38 
5.835749 4.908213 -11.872464 49 51 37 
5.860241 4.896386 -11.843856 52 52 40 
5.898795 4.896386 -11.843856 50 50 38 
5.937349 4.896386 -11.843856 49 51 39 
5.975904 4.896386 -11.843856 50 50 37 
6.014458 4.896386 -11.843856 51 52 40 
5.516129 4.096774 -9.909678 48 49 37 
5.548387 4.096774 -9.909678 49 52 40 
5.580645 4.096774 -9.909678 48 49 37 
5.612903 4.096774 -9.909678 49 52 39 
5.645161 4.096774 -9.909678 47 50 36 
5.677419 4.096774 -9.909678 47 49 38 
5.709677 4.096774 -9.909678 48 49 38 
5.753535 4.105051 -9.929697 49 49 36 
5.785859 4.105051 -9.929697 47 47 35 
5.841785 4.121704 -9.969980 48 50 38 
-4.210526 6.631579 -16.168421 93 90 75 
-4.157895 6.631579 -16.168421 122 108 97 
-4.105263 6.631579 -16.168421 100 94 77 
-4.052631 6.631579 -16.168421 106 96 82 
-4.000000 6.631579 -16.168421 106 99 82 
-3.947368 6.631579 -16.168421 107 97 82 
-3.894737 6.631579 -16.168421 107 96 87 
-3.842105 6.631579 -16.168421 28 31 25 
-3.789474 6.631579 -16.168421 11 27 28 
-3.736842 6.631579 -16.168421 29 41 48 
-3.684211 6.631579 -16.168421 52 57 65 
-3.631579 6.631579 -16.168421 28 38 44 
-3.578947 6.631579 -16.168421 26 40 47 
-3.526316 6.631579 -16.168421 21 34 40 
-3.473684 6.631579 -16.168421 25 38 47 
-3.421053 6.631579 -16.168421 15 32 42 
-3.368421 6.631579 -16.168421 22 35 46 
-3.315789 6.631579 -16.168421 31 41 48 
-3.263158 6.631579 -16.168421 18 33 42 
-3.210526 6.631579 -16.168421 20 29 39 
-3.157895 6.631579 -16.168421 4 19 25 
-3.105263 6.631579 -16.168421 19 32 42 
-3.052632 6.631579 -16.168421 37 49 58 
-3.009901 6.653465 -16.221783 21 35 40 
-2.957096 6.653465 -16.221783 26 40 46 
-2.904290 6.653465 -16.221783 36 48 54 
-2.842105 6.631579 -16.168421 35 46 52 
-2.798680 6.653465 -16.221783 30 42 50 
-2.736842 6.631579 -16.168421 29 42 50 
-2.684211 6.631579 -16.168421 21 37 44 
-2.631579 6.631579 -16.168421 24 41 46 
-2.578947 6.631579 -16.168421 31 44 53 
-2.526316 6.631579 -16.168421 22 33 44 
-2.473684 6.631579 -16.168421 4 16 23 
-2.429043 6.653465 -16.221783 6 19 23 
-2.376238 6.653465 -16.221783 17 34 42 
-2.323432 6.653465 -16.221783 33 46 54 
-2.270627 6.653465 -16.221783 26 39 44 
-2.210526 6.631579 -16.168421 21 37 43 
-2.157895 6.631579 -16.168421 33 44 51 
-2.105263 6.631579 -16.168421 34 44 53 
-2.052632 6.631579 -16.168421 39 47 54 
-2.000000 6.631579 -16.168421 40 50 57 
-1.947368 6.631579 -16.168421 30 44 48 
-1.894737 6.631579 -16.168421 22 39 44 
-1.842105 6.631579 -16.168421 29 41 50 
-1.783607 6.609836 -16.115410 20 30 37 
-1.725490 6.588235 -16.062746 3 20 16 
-1.667752 6.566775 -16.010424 52 62 54 
-1.615635 6.566775 -16.010424 59 57 42 
-1.563518 6.566775 -16.010424 58 60 41 
-1.511401 6.566775 -16.010424 60 59 46 
-1.454545 6.545455 -15.958442 66 67 55 
-1.402597 6.545455 -15.958442 66 65 50 
-1.350649 6.545455 -15.958442 51 47 41 
-1.298701 6.545455 -15.958442 4 8 3 
-1.242718 6.524272 -15.906796 16 31 18 
-1.187097 6.503226 -15.855485 85 83 72 
-1.131833 6.482315 -15.804502 80 78 66 
-1.080386 6.482315 -15.804502 82 80 66 
-1.028939 6.482315 -15.804502 71 66 58 
-0.980645 6.503226 -15.855485 14 15 10 
-0.929032 6.503226 -15.855485 14 21 11 
-0.880259 6.524272 -15.906796 43 42 23 
-0.833876 6.566775 -16.010424 88 75 52 
-0.781759 6.566775 -16.010424 89 71 47 
-0.729642 6.566775 -16.010424 90 73 48 
-0.675325 6.545455 -15.958442 89 72 46 
-0.623377 6.545455 -15.958442 91 73 49 
-0.573290 6.566775 -16.010424 91 72 48 
-0.521173 6.566775 -16.010424 90 73 48 
-0.467532 6.545455 -15.958442 91 73 49 
-0.415584 6.545455 -15.958442 92 73 49 
-0.364821 6.566775 -16.010424 90 72 47 
-0.311688 6.545455 -15.958442 91 73 49 
-0.259740 6.545455 -15.958442 90 71 47 
-0.208469 6.566775 -16.010424 91 71 47 
-0.156352 6.566775 -16.010424 89 71 47 
-0.104235 6.566775 -16.010424 88 73 48 
-0.052117 6.566775 -16.010424 89 71 45 
0.000000 6.566775 -16.010424 89 71 48 
0.052117 6.566775 -16.010424 79 64 45 
0.104235 6.566775 -16.010424 52 52 39 
0.156352 6.566775 -16.010424 56 53 41 
0.208469 6.566775 -16.010424 55 54 43 
0.260586 6.566775 -16.010424 61 63 47 
0.312704 6.566775 -16.010424 63 65 50 
0.364821 6.566775 -16.010424 62 60 47 
0.416938 6.566775 -16.010424 58 59 47 
0.469055 6.566775 -16.010424 52 50 39 
0.521173 6.566775 -16.010424 55 53 42 
0.573290 6.566775 -16.010424 53 49 41 
0.625407 6.566775 -16.010424 47 47 38 
0.677524 6.566775 -16.010424 47 45 34 
0.729642 6.566775 -16.010424 54 51 39 
0.781759 6.566775 -16.010424 50 48 32 
0.833876 6.566775 -16.010424 51 49 33 
0.885993 6.566775 -16.010424 51 46 33 
0.938111 6.566775 -16.010424 50 47 35 
0.990228 6.566775 -16.010424 51 49 34 
1.042345 6.566775 -16.010424 49 48 34 
1.094463 6.566775 -16.010424 49 47 33 
1.146580 6.566775 -16.010424 51 49 34 
1.198697 6.566775 -16.010424 48 47 33 
1.250814 6.566775 -16.010424 52 50 37 
1.302932 6.566775 -16.010424 50 49 36 
1.355049 6.566775 -16.010424 51 49 36 
1.407166 6.566775 -16.010424 51 48 34 
1.459283 6.566775 -16.010424 52 50 39 
1.516340 6.588235 -16.062746 49 47 35 
1.568627 6.588235 -16.062746 52 51 38 
1.620915 6.588235 -16.062746 50 48 33 
1.673203 6.588235 -16.062746 49 50 36 
1.719870 6.566775 -16.010424 49 49 33 
1.771987 6.566775 -16.010424 51 49 36 
1.824104 6.566775 -16.010424 51 48 34 
1.876222 6.566775 -16.010424 46 47 32 
1.928339 6.566775 -16.010424 54 52 41 
1.980456 6.566775 -16.010424 56 54 44 
2.032573 6.566775 -16.010424 51 50 39 
2.084691 6.566775 -16.010424 50 50 37 
2.136808 6.566775 -16.010424 54 51 39 
2.181818 6.545455 -15.958442 54 52 38 
2.241042 6.566775 -16.010424 55 51 37 
2.285714 6.545455 -15.958442 54 51 38 
2.337662 6.545455 -15.958442 55 53 39 
2.389610 6.545455 -15.958442 56 55 41 
2.433657 6.524272 -15.906796 53 52 37 
2.485437 6.524272 -15.906796 52 52 38 
2.537217 6.524272 -15.906796 44 42 29 
2.588997 6.524272 -15.906796 44 42 29 
2.640777 6.524272 -15.906796 45 39 30 
2.692557 6.524272 -15.906796 43 41 30 
2.744337 6.524272 -15.906796 44 41 30 
2.805195 6.545455 -15.958442 44 43 33 
2.857143 6.545455 -15.958442 42 40 28 
2.899676 6.524272 -15.906796 45 44 34 
2.951456 6.524272 -15.906796 44 42 32 
3.003236 6.524272 -15.906796 43 41 31 
3.055016 6.524272 -15.906796 44 42 30 
3.106796 6.524272 -15.906796 46 45 33 
3.158576 6.524272 -15.906796 49 47 32 
3.210356 6.524272 -15.906796 53 51 39 
3.272727 6.545455 -15.958442 43 43 29 
3.324675 6.545455 -15.958442 51 52 37 
3.376623 6.545455 -15.958442 78 67 46 
3.439739 6.566775 -16.010424 82 63 47 
3.491857 6.566775 -16.010424 27 26 16 
3.543974 6.566775 -16.010424 1 10 4 
3.607843 6.588235 -16.062746 11 17 12 
3.660131 6.588235 -16.062746 8 16 11 
3.712418 6.588235 -16.062746 7 15 10 
3.764706 6.588235 -16.062746 9 17 13 
3.842105 6.631579 -16.168421 9 16 12 
3.907591 6.653465 -16.221783 10 17 13 
3.960396 6.653465 -16.221783 8 15 11 
4.026490 6.675497 -16.275497 8 18 13 
4.093023 6.697674 -16.329569 7 15 10 
4.160000 6.720000 -16.384001 16 24 17 
4.227425 6.742475 -16.438797 22 26 22 
4.280936 6.742475 -16.438797 22 25 20 
4.334448 6.742475 -16.438797 21 25 17 
4.402685 6.765100 -16.493961 21 26 21 
4.456376 6.765100 -16.493961 18 23 18 
4.510067 6.765100 -16.493961 21 25 19 
4.563758 6.765100 -16.493961 20 24 17 
4.617450 6.765100 -16.493961 19 24 18 
4.671141 6.765100 -16.493961 18 23 17 
4.756757 6.810811 -16.605406 13 21 16 
4.827119 6.833898 -16.661695 11 19 13 
4.897959 6.857143 -16.718369 11 22 16 
4.969283 6.880546 -16.775427 19 30 21 
5.041096 6.904109 -16.832878 35 41 34 
5.095891 6.904109 -16.832878 34 39 29 
5.168385 6.927835 -16.890722 35 41 32 
5.223368 6.927835 -16.890722 35 39 29 
5.278350 6.927835 -16.890722 34 41 31 
5.315069 6.904109 -16.832878 35 40 29 
5.279461 6.787879 -16.549496 36 41 31 
5.315436 6.765100 -16.493961 37 41 31 
5.280528 6.653465 -16.221783 40 46 33 
5.315790 6.631579 -16.168421 43 46 32 
5.333333 6.588235 -16.062746 46 49 37 
5.265176 6.440895 -15.703515 44 47 37 
5.299363 6.420382 -15.653503 46 49 38 
5.333333 6.400000 -15.603810 43 47 34 
5.367089 6.379747 -15.554431 44 48 37 
5.400631 6.359622 -15.505363 41 45 34 
5.433962 6.339622 -15.456604 46 51 39 
5.484277 6.339622 -15.456604 51 52 40 
5.534591 6.339622 -15.456604 48 50 37 
5.567398 6.319749 -15.408151 50 50 37 
5.617555 6.319749 -15.408151 49 49 38 
5.667712 6.319749 -15.408151 45 46 35 
5.700000 6.300000 -15.360001 45 48 37 
5.750000 6.300000 -15.360001 49 52 39 
5.800000 6.300000 -15.360001 51 52 41 
5.850000 6.300000 -15.360001 48 49 37 
5.900000 6.300000 -15.360001 50 52 38 
5.950000 6.300000 -15.360001 50 51 36 
6.000000 6.300000 -15.360001 48 51 39 
6.050000 6.300000 -15.360001 49 51 38 
6.119122 6.319749 -15.408151 51 51 40 
6.169279 6.319749 -15.408151 50 50 38 
6.219436 6.319749 -15.408151 50 52 41 
6.289308 6.339622 -15.456604 50 50 38 
6.319749 6.319749 -15.408151 50 51 41 
6.350000 6.300000 -15.360001 48 50 38 
5.865229 5.433962 -13.248518 51 51 40 
5.845333 5.376000 -13.107201 48 50 36 
5.872340 5.361702 -13.072341 49 53 40 
5.930666 5.376000 -13.107201 49 51 37 
5.989305 5.390374 -13.142246 49 52 39 
6.048257 5.404826 -13.177481 48 48 38 
6.091153 5.404826 -13.177481 50 51 40 
6.134048 5.404826 -13.177481 49 50 37 
6.176944 5.404826 -13.177481 49 52 39 
6.236559 5.419355 -13.212904 48 49 38 
6.279570 5.419355 -13.212904 48 52 39 
6.339622 5.433962 -13.248518 49 51 38 
5.811138 4.881356 -11.901211 51 52 39 
5.835749 4.869565 -11.872464 48 51 37 
5.874396 4.869565 -11.872464 48 51 40 
5.913043 4.869565 -11.872464 49 50 37 
5.937349 4.857831 -11.843856 49 51 38 
5.975904 4.857831 -11.843856 49 50 39 
5.462626 4.072727 -9.929697 48 48 35 
5.483871 4.064516 -9.909678 49 50 37 
5.516129 4.064516 -9.909678 49 49 37 
5.548387 4.064516 -9.909678 50 51 38 
5.580645 4.064516 -9.909678 49 48 37 
5.612903 4.064516 -9.909678 49 51 40 
5.645161 4.064516 -9.909678 49 50 39 
5.677419 4.064516 -9.909678 48 50 40 
5.709677 4.064516 -9.909678 47 48 38 
5.753535 4.072727 -9.929697 48 51 40 
5.785859 4.072727 -9.929697 47 47 36 
5.829959 4.080972 -9.949798 47 51 37 
8.274285 5.760000 -14.043429 46 47 36 
-4.210526 6.578948 -16.168421 91 88 72 
-4.157895 6.578948 -16.168421 122 108 94 
-4.105263 6.578948 -16.168421 100 93 75 
-4.052631 6.578948 -16.168421 107 95 81 
-4.000000 6.578948 -16.168421 105 98 84 
-3.947368 6.578948 -16.168421 106 98 84 
-3.894737 6.578948 -16.168421 107 95 85 
-3.842105 6.578948 -16.168421 30 31 26 
-3.789474 6.578948 -16.168421 10 25 29 
-3.736842 6.578948 -16.168421 30 46 49 
-3.684211 6.578948 -16.168421 26 48 45 
-3.631579 6.578948 -16.168421 26 38 44 
-3.578947 6.578948 -16.168421 23 38 48 
-3.526316 6.578948 -16.168421 20 35 44 
-3.473684 6.578948 -16.168421 21 37 43 
-3.421053 6.578948 -16.168421 18 34 41 
-3.368421 6.578948 -16.168421 18 38 43 
-3.315789 6.578948 -16.168421 17 35 41 
-3.263158 6.578948 -16.168421 21 35 44 
-3.210526 6.578948 -16.168421 16 29 37 
-3.157895 6.578948 -16.168421 5 19 24 
-3.105263 6.578948 -16.168421 20 36 42 
-3.052632 6.578948 -16.168421 38 47 56 
-3.009901 6.600660 -16.221783 21 38 42 
-2.957096 6.600660 -16.221783 25 42 48 
-2.894737 6.578948 -16.168421 34 47 55 
-2.842105 6.578948 -16.168421 34 46 54 
-2.789474 6.578948 -16.168421 30 43 51 
-2.736842 6.578948 -16.168421 28 42 50 
-2.684211 6.578948 -16.168421 24 38 47 
-2.631579 6.578948 -16.168421 21 38 47 
-2.578947 6.578948 -16.168421 30 42 50 
-2.526316 6.578948 -16.168421 22 34 43 
-2.473684 6.578948 -16.168421 4 16 21 
-2.429043 6.600660 -16.221783 6 19 23 
-2.376238 6.600660 -16.221783 17 34 43 
-2.323432 6.600660 -16.221783 30 43 53 
-2.270627 6.600660 -16.221783 19 35 44 
-2.210526 6.578948 -16.168421 20 38 43 
-2.157895 6.578948 -16.168421 28 44 52 
-2.105263 6.578948 -16.168421 32 45 54 
-2.052632 6.578948 -16.168421 36 49 55 
-2.000000 6.578948 -16.168421 35 47 54 
-1.947368 6.578948 -16.168421 26 37 44 
-1.894737 6.578948 -16.168421 21 36 42 
-1.842105 6.578948 -16.168421 32 42 49 
-1.783607 6.557377 -16.115410 18 28 34 
-1.725490 6.535948 -16.062746 3 19 13 
-1.667752 6.514658 -16.010424 51 63 53 
-1.615635 6.514658 -16.010424 62 57 44 
-1.563518 6.514658 -16.010424 59 58 42 
-1.511401 6.514658 -16.010424 60 59 47 
-1.454545 6.493506 -15.958442 66 66 56 
-1.402597 6.493506 -15.958442 63 61 51 
-1.350649 6.493506 -15.958442 52 48 43 
-1.298701 6.493506 -15.958442 4 9 4 
-1.242718 6.472492 -15.906796 18 31 19 
-1.190938 6.472492 -15.906796 86 84 73 
-1.131833 6.430868 -15.804502 79 76 64 
-1.076923 6.410256 -15.753847 82 79 67 
-1.025641 6.410256 -15.753847 70 65 58 
-0.980645 6.451613 -15.855485 15 15 11 
-0.929032 6.451613 -15.855485 14 20 10 
-0.880259 6.472492 -15.906796 44 41 22 
-0.833876 6.514658 -16.010424 89 76 53 
-0.781759 6.514658 -16.010424 90 73 50 
-0.729642 6.514658 -16.010424 90 73 48 
-0.675325 6.493506 -15.958442 89 73 46 
-0.623377 6.493506 -15.958442 91 75 49 
-0.573290 6.514658 -16.010424 90 73 49 
-0.521173 6.514658 -16.010424 89 74 49 
-0.467532 6.493506 -15.958442 91 73 47 
-0.415584 6.493506 -15.958442 92 74 52 
-0.363636 6.493506 -15.958442 90 72 49 
-0.311688 6.493506 -15.958442 92 73 47 
-0.259740 6.493506 -15.958442 90 71 47 
-0.208469 6.514658 -16.010424 91 74 49 
-0.156352 6.514658 -16.010424 89 70 45 
-0.104235 6.514658 -16.010424 88 72 47 
-0.052117 6.514658 -16.010424 90 71 46 
0.000000 6.514658 -16.010424 89 72 49 
0.052117 6.514658 -16.010424 78 64 47 
0.104235 6.514658 -16.010424 52 50 40 
0.156352 6.514658 -16.010424 52 51 40 
0.208469 6.514658 -16.010424 52 53 44 
0.260586 6.514658 -16.010424 53 52 43 
0.312704 6.514658 -16.010424 54 55 42 
0.364821 6.514658 -16.010424 54 55 40 
0.416938 6.514658 -16.010424 53 54 43 
0.469055 6.514658 -16.010424 52 53 41 
0.521173 6.514658 -16.010424 57 54 46 
0.573290 6.514658 -16.010424 55 51 42 
0.625407 6.514658 -16.010424 49 48 36 
0.677524 6.514658 -16.010424 42 43 31 
0.729642 6.514658 -16.010424 47 48 34 
0.781759 6.514658 -16.010424 45 45 32 
0.833876 6.514658 -16.010424 46 45 33 
0.885993 6.514658 -16.010424 45 46 33 
0.938111 6.514658 -16.010424 46 46 35 
0.990228 6.514658 -16.010424 43 43 32 
1.042345 6.514658 -16.010424 46 46 34 
1.094463 6.514658 -16.010424 44 43 30 
1.146580 6.514658 -16.010424 47 46 33 
1.198697 6.514658 -16.010424 44 44 31 
1.250814 6.514658 -16.010424 46 45 33 
1.302932 6.514658 -16.010424 46 45 31 
1.355049 6.514658 -16.010424 46 46 32 
1.407166 6.514658 -16.010424 45 45 32 
1.459283 6.514658 -16.010424 47 46 36 
1.516340 6.535948 -16.062746 46 45 32 
1.568627 6.535948 -16.062746 47 48 33 
1.620915 6.535948 -16.062746 45 45 32 
1.673203 6.535948 -16.062746 46 46 33 
1.719870 6.514658 -16.010424 46 44 32 
1.771987 6.514658 -16.010424 45 46 34 
1.824104 6.514658 -16.010424 44 45 32 
1.876222 6.514658 -16.010424 44 47 36 
1.928339 6.514658 -16.010424 52 53 43 
1.980456 6.514658 -16.010424 56 54 43 
2.032573 6.514658 -16.010424 53 49 37 
2.084691 6.514658 -16.010424 48 50 36 
2.136808 6.514658 -16.010424 50 50 36 
2.181818 6.493506 -15.958442 51 52 36 
2.233766 6.493506 -15.958442 50 51 34 
2.285714 6.493506 -15.958442 53 52 37 
2.337662 6.493506 -15.958442 54 50 37 
2.389610 6.493506 -15.958442 54 52 39 
2.433657 6.472492 -15.906796 53 50 37 
2.485437 6.472492 -15.906796 53 51 39 
2.537217 6.472492 -15.906796 49 47 34 
2.588997 6.472492 -15.906796 51 51 34 
2.640777 6.472492 -15.906796 48 47 36 
2.692557 6.472492 -15.906796 48 48 37 
2.744337 6.472492 -15.906796 49 46 35 
2.796117 6.472492 -15.906796 48 47 36 
2.847896 6.472492 -15.906796 48 48 35 
2.899676 6.472492 -15.906796 49 48 37 
2.951456 6.472492 -15.906796 46 46 34 
2.993548 6.451613 -15.855485 48 47 35 
3.045161 6.451613 -15.855485 47 46 35 
3.096774 6.451613 -15.855485 50 47 38 
3.148387 6.451613 -15.855485 49 47 36 
3.210356 6.472492 -15.906796 48 48 38 
3.262136 6.472492 -15.906796 44 42 33 
3.324675 6.493506 -15.958442 52 53 39 
3.376623 6.493506 -15.958442 76 66 46 
3.439739 6.514658 -16.010424 80 62 46 
3.491857 6.514658 -16.010424 30 25 17 
3.543974 6.514658 -16.010424 1 10 3 
3.596091 6.514658 -16.010424 11 17 12 
3.660131 6.535948 -16.062746 8 15 12 
3.712418 6.535948 -16.062746 6 12 8 
3.764706 6.535948 -16.062746 9 17 13 
3.829508 6.557377 -16.115410 9 17 11 
3.907591 6.600660 -16.221783 11 20 14 
3.960396 6.600660 -16.221783 10 18 13 
4.039867 6.644518 -16.329569 9 19 12 
4.106667 6.666667 -16.384001 7 16 9 
4.173913 6.688963 -16.438797 10 23 16 
4.241611 6.711410 -16.493961 26 34 26 
4.295302 6.711410 -16.493961 38 41 34 
4.348993 6.711410 -16.493961 38 39 32 
4.432433 6.756757 -16.605406 38 40 34 
4.486486 6.756757 -16.605406 37 39 32 
4.555932 6.779661 -16.661695 38 40 33 
4.610169 6.779661 -16.661695 38 38 29 
4.664407 6.779661 -16.661695 41 40 33 
4.718644 6.779661 -16.661695 40 39 33 
4.772882 6.779661 -16.661695 36 35 31 
4.843537 6.802721 -16.718369 32 31 27 
4.914676 6.825939 -16.775427 32 35 30 
4.986301 6.849315 -16.832878 33 36 31 
5.041096 6.849315 -16.832878 35 40 31 
5.113402 6.872852 -16.890722 34 39 29 
5.168385 6.872852 -16.890722 34 39 31 
5.223368 6.872852 -16.890722 36 39 30 
5.278350 6.872852 -16.890722 36 39 31 
5.315069 6.849315 -16.832878 36 41 31 
5.297297 6.756757 -16.605406 35 41 30 
5.315436 6.711410 -16.493961 36 40 30 
5.298013 6.622517 -16.275497 40 45 36 
5.315790 6.578948 -16.168421 39 45 34 
5.315961 6.514658 -16.010424 44 48 38 
5.248408 6.369427 -15.653503 45 47 36 
5.299363 6.369427 -15.653503 45 49 39 
5.316456 6.329114 -15.554431 44 47 37 
5.350158 6.309148 -15.505363 44 48 40 
5.400631 6.309148 -15.505363 42 45 36 
5.433962 6.289308 -15.456604 45 51 40 
5.484277 6.289308 -15.456604 52 51 39 
5.517241 6.269592 -15.408151 47 50 37 
5.567398 6.269592 -15.408151 49 49 37 
5.617555 6.269592 -15.408151 47 50 38 
5.667712 6.269592 -15.408151 45 48 35 
5.700000 6.250000 -15.360001 46 49 37 
5.750000 6.250000 -15.360001 48 52 39 
5.800000 6.250000 -15.360001 49 52 41 
5.850000 6.250000 -15.360001 49 49 38 
5.900000 6.250000 -15.360001 48 52 39 
5.950000 6.250000 -15.360001 50 50 36 
6.000000 6.250000 -15.360001 51 52 39 
6.050000 6.250000 -15.360001 48 53 38 
6.119122 6.269592 -15.408151 49 53 41 
6.169279 6.269592 -15.408151 50 51 40 
6.219436 6.269592 -15.408151 50 51 40 
6.269592 6.269592 -15.408151 49 49 36 
6.300000 6.250000 -15.360001 49 52 38 
6.350000 6.250000 -15.360001 49 50 38 
6.400000 6.250000 -15.360001 48 52 39 
5.726316 5.263158 -12.934737 50 51 39 
5.768421 5.263158 -12.934737 50 49 38 
5.825858 5.277045 -12.968866 51 52 38 
5.883598 5.291005 -13.003175 50 52 37 
5.973333 5.333333 -13.107201 50 52 36 
6.032085 5.347594 -13.142246 47 50 37 
6.091153 5.361930 -13.177481 49 52 40 
6.134048 5.361930 -13.177481 47 51 40 
6.193548 5.376344 -13.212904 50 52 40 
6.236559 5.376344 -13.212904 48 50 38 
6.279570 5.376344 -13.212904 51 51 40 
6.339622 5.390836 -13.248518 48 50 38 
6.382750 5.390836 -13.248518 50 51 39 
6.425876 5.390836 -13.248518 49 51 37 
6.451613 5.376344 -13.212904 48 51 36 
6.477212 5.361930 -13.177481 50 49 37 
5.473684 4.048583 -9.949798 48 51 36 
5.483871 4.032258 -9.909678 48 50 39 
5.516129 4.032258 -9.909678 47 50 37 
5.548387 4.032258 -9.909678 50 51 40 
5.580645 4.032258 -9.909678 47 48 37 
5.612903 4.032258 -9.909678 47 51 38 
5.645161 4.032258 -9.909678 48 50 37 
5.677419 4.032258 -9.909678 50 51 39 
5.709677 4.032258 -9.909678 49 49 37 
5.741935 4.032258 -9.909678 50 51 39 
5.785859 4.040404 -9.929697 48 48 38 
5.829959 4.048583 -9.949798 48 50 38 
8.274285 5.714286 -14.043429 45 49 34 
8.320000 5.714286 -14.043429 46 51 37 
8.365714 5.714286 -14.043429 46 47 35 
8.387465 5.698006 -14.003419 47 50 37 
8.433048 5.698006 -14.003419 47 48 35 
8.478633 5.698006 -14.003419 48 49 38 
-4.210526 6.526316 -16.168421 91 88 72 
-4.157895 6.526316 -16.168421 120 108 95 
-4.105263 6.526316 -16.168421 97 90 77 
-4.052631 6.526316 -16.168421 104 94 83 
-4.000000 6.526316 -16.168421 104 97 83 
-3.947368 6.526316 -16.168421 106 97 83 
-3.894737 6.526316 -16.168421 111 99 91 
-3.842105 6.526316 -16.168421 30 32 28 
-3.789474 6.526316 -16.168421 11 26 32 
-3.736842 6.526316 -16.168421 33 43 54 
-3.684211 6.526316 -16.168421 19 36 45 
-3.631579 6.526316 -16.168421 23 37 44 
-3.578947 6.526316 -16.168421 23 37 46 
-3.526316 6.526316 -16.168421 17 33 40 
-3.473684 6.526316 -16.168421 20 36 44 
-3.421053 6.526316 -16.168421 18 33 41 
-3.368421 6.526316 -16.168421 19 34 43 
-3.315789 6.526316 -16.168421 19 34 42 
-3.263158 6.526316 -16.168421 21 36 47 
-3.210526 6.526316 -16.168421 13 26 36 
-3.157895 6.526316 -16.168421 5 19 28 
-3.105263 6.526316 -16.168421 17 35 42 
-3.052632 6.526316 -16.168421 40 50 60 
-3.000000 6.526316 -16.168421 33 42 50 
-2.947368 6.526316 -16.168421 32 44 54 
-2.894737 6.526316 -16.168421 33 46 51 
-2.842105 6.526316 -16.168421 34 46 53 
-2.789474 6.526316 -16.168421 29 42 48 
-2.736842 6.526316 -16.168421 30 42 52 
-2.684211 6.526316 -16.168421 29 40 49 
-2.631579 6.526316 -16.168421 30 40 51 
-2.578947 6.526316 -16.168421 28 39 48 
-2.526316 6.526316 -16.168421 20 31 41 
-2.473684 6.526316 -16.168421 4 15 21 
-2.429043 6.547855 -16.221783 7 20 22 
-2.376238 6.547855 -16.221783 16 32 40 
-2.323432 6.547855 -16.221783 29 43 52 
-2.270627 6.547855 -16.221783 26 38 46 
-2.210526 6.526316 -16.168421 27 40 48 
-2.157895 6.526316 -16.168421 29 40 47 
-2.105263 6.526316 -16.168421 30 43 51 
-2.052632 6.526316 -16.168421 29 42 47 
-2.000000 6.526316 -16.168421 33 45 51 
-1.947368 6.526316 -16.168421 34 43 51 
-1.894737 6.526316 -16.168421 36 45 54 
-1.842105 6.526316 -16.168421 34 42 50 
-1.783607 6.504918 -16.115410 16 27 33 
-1.719870 6.462541 -16.010424 5 19 14 
-1.667752 6.462541 -16.010424 54 62 54 
-1.615635 6.462541 -16.010424 66 60 47 
-1.563518 6.462541 -16.010424 60 59 43 
-1.511401 6.462541 -16.010424 60 60 46 
-1.454545 6.441558 -15.958442 66 67 53 
-1.402597 6.441558 -15.958442 63 63 49 
-1.350649 6.441558 -15.958442 51 49 41 
-1.298701 6.441558 -15.958442 4 8 3 
-1.242718 6.420712 -15.906796 18 34 19 
-1.190938 6.420712 -15.906796 84 85 73 
-1.131833 6.379421 -15.804502 80 77 66 
-1.076923 6.358974 -15.753847 82 78 69 
-1.025641 6.358974 -15.753847 69 63 58 
-0.980645 6.400000 -15.855485 15 15 11 
-0.929032 6.400000 -15.855485 14 21 10 
-0.880259 6.420712 -15.906796 41 41 20 
-0.833876 6.462541 -16.010424 87 75 50 
-0.781759 6.462541 -16.010424 90 72 48 
-0.729642 6.462541 -16.010424 89 74 50 
-0.675325 6.441558 -15.958442 89 72 47 
-0.623377 6.441558 -15.958442 90 74 52 
-0.573290 6.462541 -16.010424 88 71 48 
-0.521173 6.462541 -16.010424 91 73 50 
-0.467532 6.441558 -15.958442 92 74 48 
-0.415584 6.441558 -15.958442 94 76 51 
-0.363636 6.441558 -15.958442 91 73 50 
-0.311688 6.441558 -15.958442 90 74 49 
-0.259740 6.441558 -15.958442 89 72 45 
-0.208469 6.462541 -16.010424 89 72 48 
-0.156352 6.462541 -16.010424 89 72 46 
-0.104235 6.462541 -16.010424 90 74 48 
-0.052117 6.462541 -16.010424 90 73 49 
0.000000 6.462541 -16.010424 90 72 48 
0.052117 6.462541 -16.010424 79 64 45 
0.104235 6.462541 -16.010424 54 51 40 
0.156352 6.462541 -16.010424 53 51 39 
0.208469 6.462541 -16.010424 52 51 42 
0.260586 6.462541 -16.010424 53 52 43 
0.312704 6.462541 -16.010424 52 53 42 
0.364821 6.462541 -16.010424 52 53 42 
0.416938 6.462541 -16.010424 54 55 44 
0.469055 6.462541 -16.010424 53 54 41 
0.521173 6.462541 -16.010424 57 54 43 
0.573290 6.462541 -16.010424 54 49 41 
0.625407 6.462541 -16.010424 49 47 40 
0.677524 6.462541 -16.010424 50 47 39 
0.729642 6.462541 -16.010424 50 49 39 
0.781759 6.462541 -16.010424 49 48 37 
0.833876 6.462541 -16.010424 50 49 40 
0.885993 6.462541 -16.010424 51 48 38 
0.938111 6.462541 -16.010424 50 47 40 
0.990228 6.462541 -16.010424 49 48 38 
1.042345 6.462541 -16.010424 51 48 39 
1.094463 6.462541 -16.010424 49 46 38 
1.146580 6.462541 -16.010424 50 50 40 
1.198697 6.462541 -16.010424 48 49 37 
1.250814 6.462541 -16.010424 52 50 41 
1.302932 6.462541 -16.010424 49 48 38 
1.355049 6.462541 -16.010424 50 49 40 
1.407166 6.462541 -16.010424 49 49 41 
1.459283 6.462541 -16.010424 51 50 41 
1.516340 6.483660 -16.062746 50 49 38 
1.568627 6.483660 -16.062746 54 52 41 
1.620915 6.483660 -16.062746 52 49 39 
1.673203 6.483660 -16.062746 52 49 42 
1.719870 6.462541 -16.010424 51 49 41 
1.771987 6.462541 -16.010424 52 50 42 
1.824104 6.462541 -16.010424 48 48 41 
1.876222 6.462541 -16.010424 52 52 43 
1.928339 6.462541 -16.010424 56 52 44 
1.980456 6.462541 -16.010424 54 53 45 
2.032573 6.462541 -16.010424 50 49 39 
2.084691 6.462541 -16.010424 46 49 35 
2.129870 6.441558 -15.958442 45 48 36 
2.181818 6.441558 -15.958442 48 48 37 
2.233766 6.441558 -15.958442 48 46 35 
2.285714 6.441558 -15.958442 47 50 38 
2.337662 6.441558 -15.958442 48 47 36 
2.389610 6.441558 -15.958442 49 48 38 
2.433657 6.420712 -15.906796 50 48 36 
2.485437 6.420712 -15.906796 48 49 38 
2.537217 6.420712 -15.906796 48 46 35 
2.588997 6.420712 -15.906796 49 47 38 
2.640777 6.420712 -15.906796 47 46 35 
2.692557 6.420712 -15.906796 48 47 36 
2.744337 6.420712 -15.906796 48 46 36 
2.796117 6.420712 -15.906796 48 47 37 
2.847896 6.420712 -15.906796 46 46 34 
2.899676 6.420712 -15.906796 47 47 37 
2.951456 6.420712 -15.906796 46 46 35 
2.993548 6.400000 -15.855485 48 49 38 
3.045161 6.400000 -15.855485 46 46 36 
3.096774 6.400000 -15.855485 48 48 37 
3.148387 6.400000 -15.855485 49 48 37 
3.210356 6.420712 -15.906796 48 49 38 
3.262136 6.420712 -15.906796 46 47 35 
3.324675 6.441558 -15.958442 53 54 37 
3.376623 6.441558 -15.958442 76 64 44 
3.439739 6.462541 -16.010424 80 61 46 
3.491857 6.462541 -16.010424 31 25 17 
3.543974 6.462541 -16.010424 2 9 4 
3.596091 6.462541 -16.010424 13 17 13 
3.660131 6.483660 -16.062746 7 16 12 
3.712418 6.483660 -16.062746 6 13 9 
3.764706 6.483660 -16.062746 10 18 12 
3.829508 6.504918 -16.115410 10 17 11 
3.907591 6.547855 -16.221783 11 18 13 
3.960396 6.547855 -16.221783 10 17 11 
4.039867 6.591362 -16.329569 10 18 12 
4.106667 6.613333 -16.384001 13 20 14 
4.187920 6.657718 -16.493961 16 22 17 
4.241611 6.657718 -16.493961 9 21 10 
4.324324 6.702703 -16.605406 26 37 24 
4.393220 6.725424 -16.661695 39 42 33 
4.462585 6.748299 -16.718369 40 44 32 
4.517007 6.748299 -16.718369 39 43 29 
4.571429 6.748299 -16.718369 40 45 32 
4.625850 6.748299 -16.718369 40 42 31 
4.680272 6.748299 -16.718369 42 47 35 
4.734694 6.748299 -16.718369 42 44 34 
4.789115 6.748299 -16.718369 37 42 31 
4.860068 6.771331 -16.775427 33 37 28 
4.931507 6.794520 -16.832878 34 40 32 
4.986301 6.794520 -16.832878 34 38 28 
5.058419 6.817869 -16.890722 34 40 32 
5.113402 6.817869 -16.890722 33 37 27 
5.168385 6.817869 -16.890722 35 39 30 
5.223368 6.817869 -16.890722 35 39 30 
5.278350 6.817869 -16.890722 34 39 31 
5.315069 6.794520 -16.832878 37 41 31 
5.297297 6.702703 -16.605406 39 43 34 
5.333333 6.680135 -16.549496 36 41 31 
5.298013 6.569536 -16.275497 41 45 36 
5.315790 6.526316 -16.168421 43 46 36 
5.281553 6.420712 -15.906796 46 49 37 
5.248408 6.318471 -15.653503 43 47 36 
5.282540 6.298413 -15.603810 46 49 40 
5.316456 6.278481 -15.554431 46 47 36 
5.350158 6.258675 -15.505363 45 48 38 
5.400631 6.258675 -15.505363 43 44 35 
5.433962 6.238994 -15.456604 45 49 39 
5.484277 6.238994 -15.456604 52 52 41 
5.517241 6.219436 -15.408151 49 52 38 
5.567398 6.219436 -15.408151 48 49 36 
5.617555 6.219436 -15.408151 47 50 37 
5.650000 6.200000 -15.360001 47 49 36 
5.700000 6.200000 -15.360001 46 48 37 
5.750000 6.200000 -15.360001 49 51 37 
5.800000 6.200000 -15.360001 51 52 41 
5.850000 6.200000 -15.360001 47 50 38 
5.900000 6.200000 -15.360001 50 52 39 
5.950000 6.200000 -15.360001 52 53 38 
6.000000 6.200000 -15.360001 50 51 39 
6.050000 6.200000 -15.360001 50 49 36 
6.119122 6.219436 -15.408151 49 51 39 
6.169279 6.219436 -15.408151 49 48 36 
6.219436 6.219436 -15.408151 50 51 37 
6.250000 6.200000 -15.360001 47 49 36 
6.300000 6.200000 -15.360001 50 51 40 
6.350000 6.200000 -15.360001 48 49 37 
6.400000 6.200000 -15.360001 48 51 39 
5.726316 5.221053 -12.934737 49 52 40 
5.768421 5.221053 -12.934737 49 50 37 
5.825858 5.234828 -12.968866 52 53 41 
5.883598 5.248677 -13.003175 50 49 37 
5.957447 5.276596 -13.072341 50 51 39 
6.016000 5.290667 -13.107201 48 51 38 
6.074866 5.304813 -13.142246 50 54 39 
6.134048 5.319035 -13.177481 48 51 36 
6.193548 5.333333 -13.212904 51 53 40 
6.236559 5.333333 -13.212904 50 51 35 
6.296496 5.347709 -13.248518 48 51 38 
6.339622 5.347709 -13.248518 48 49 37 
6.382750 5.347709 -13.248518 51 50 39 
6.425876 5.347709 -13.248518 48 50 38 
6.451613 5.333333 -13.212904 48 51 39 
5.516129 4.000000 -9.909678 47 49 37 
5.548387 4.000000 -9.909678 49 52 38 
5.580645 4.000000 -9.909678 47 48 37 
5.612903 4.000000 -9.909678 48 50 37 
5.645161 4.000000 -9.909678 50 49 36 
5.677419 4.000000 -9.909678 49 51 38 
5.709677 4.000000 -9.909678 49 48 39 
5.741935 4.000000 -9.909678 49 50 38 
5.785859 4.008081 -9.929697 46 48 36 
8.320000 5.668571 -14.043429 45 50 36 
8.365714 5.668571 -14.043429 45 48 32 
8.387465 5.652421 -14.003419 49 50 38 
8.433048 5.652421 -14.003419 47 47 36 
8.478633 5.652421 -14.003419 47 49 39 
8.524217 5.652421 -14.003419 46 47 37 
-4.210526 6.473684 -16.168421 89 85 69 
-4.157895 6.473684 -16.168421 120 109 96 
-4.105263 6.473684 -16.168421 97 90 75 
-4.052631 6.473684 -16.168421 104 94 81 
-4.000000 6.473684 -16.168421 102 96 81 
-3.947368 6.473684 -16.168421 105 97 83 
-3.894737 6.473684 -16.168421 115 102 93 
-3.842105 6.473684 -16.168421 35 35 31 
-3.789474 6.473684 -16.168421 8 24 30 
-3.736842 6.473684 -16.168421 32 43 52 
-3.684211 6.473684 -16.168421 23 36 46 
-3.631579 6.473684 -16.168421 24 36 45 
-3.578947 6.473684 -16.168421 24 38 46 
-3.526316 6.473684 -16.168421 22 34 42 
-3.473684 6.473684 -16.168421 24 35 45 
-3.421053 6.473684 -16.168421 18 31 41 
-3.368421 6.473684 -16.168421 19 34 44 
-3.315789 6.473684 -16.168421 19 33 41 
-3.263158 6.473684 -16.168421 19 34 44 
-3.210526 6.473684 -16.168421 13 29 36 
-3.157895 6.473684 -16.168421 5 19 26 
-3.105263 6.473684 -16.168421 18 36 41 
-3.052632 6.473684 -16.168421 41 53 61 
-3.000000 6.473684 -16.168421 32 44 52 
-2.947368 6.473684 -16.168421 32 46 54 
-2.894737 6.473684 -16.168421 30 44 52 
-2.842105 6.473684 -16.168421 32 45 54 
-2.789474 6.473684 -16.168421 28 41 49 
-2.736842 6.473684 -16.168421 29 41 50 
-2.684211 6.473684 -16.168421 26 40 50 
-2.631579 6.473684 -16.168421 28 42 52 
-2.578947 6.473684 -16.168421 28 42 49 
-2.526316 6.473684 -16.168421 20 33 42 
-2.473684 6.473684 -16.168421 5 16 21 
-2.421053 6.473684 -16.168421 6 18 22 
-2.376238 6.495049 -16.221783 15 33 41 
-2.323432 6.495049 -16.221783 26 42 51 
-2.270627 6.495049 -16.221783 26 40 46 
-2.210526 6.473684 -16.168421 29 42 48 
-2.157895 6.473684 -16.168421 27 41 46 
-2.105263 6.473684 -16.168421 29 42 49 
-2.052632 6.473684 -16.168421 29 41 47 
-2.000000 6.473684 -16.168421 33 45 53 
-1.947368 6.473684 -16.168421 36 45 52 
-1.894737 6.473684 -16.168421 39 50 56 
-1.836066 6.452459 -16.115410 38 44 54 
-1.777778 6.431373 -16.062746 15 27 33 
-1.719870 6.410423 -16.010424 4 20 15 
-1.662338 6.389610 -15.958442 52 63 52 
-1.615635 6.410423 -16.010424 65 60 46 
-1.563518 6.410423 -16.010424 61 60 46 
-1.506493 6.389610 -15.958442 58 57 45 
-1.454545 6.389610 -15.958442 67 66 54 
-1.402597 6.389610 -15.958442 63 62 51 
-1.350649 6.389610 -15.958442 51 47 43 
-1.298701 6.389610 -15.958442 4 8 4 
-1.242718 6.368932 -15.906796 17 31 18 
-1.190938 6.368932 -15.906796 85 86 73 
-1.131833 6.327974 -15.804502 79 76 64 
-1.076923 6.307693 -15.753847 81 80 68 
-1.025641 6.307693 -15.753847 70 66 58 
-0.980645 6.348387 -15.855485 16 16 12 
-0.929032 6.348387 -15.855485 13 20 9 
-0.880259 6.368932 -15.906796 43 41 21 
-0.833876 6.410423 -16.010424 86 73 51 
-0.781759 6.410423 -16.010424 90 73 49 
-0.729642 6.410423 -16.010424 90 74 48 
-0.677524 6.410423 -16.010424 90 73 48 
-0.625407 6.410423 -16.010424 91 73 50 
-0.573290 6.410423 -16.010424 90 72 48 
-0.521173 6.410423 -16.010424 92 74 51 
-0.467532 6.389610 -15.958442 92 74 51 
-0.415584 6.389610 -15.958442 91 74 52 
-0.364821 6.410423 -16.010424 91 73 50 
-0.312704 6.410423 -16.010424 93 76 52 
-0.260586 6.410423 -16.010424 91 72 46 
-0.208469 6.410423 -16.010424 92 72 48 
-0.156863 6.431373 -16.062746 90 72 47 
-0.104575 6.431373 -16.062746 90 74 50 
-0.052288 6.431373 -16.062746 90 72 44 
0.000000 6.410423 -16.010424 89 74 48 
0.052117 6.410423 -16.010424 80 64 45 
0.104235 6.410423 -16.010424 54 51 38 
0.156352 6.410423 -16.010424 53 52 41 
0.208469 6.410423 -16.010424 48 49 41 
0.260586 6.410423 -16.010424 49 49 41 
0.312704 6.410423 -16.010424 53 53 44 
0.364821 6.410423 -16.010424 53 52 42 
0.416938 6.410423 -16.010424 53 54 45 
0.469055 6.410423 -16.010424 52 52 40 
0.521173 6.410423 -16.010424 56 55 46 
0.573290 6.410423 -16.010424 54 51 41 
0.625407 6.410423 -16.010424 50 49 42 
0.677524 6.410423 -16.010424 47 46 37 
0.729642 6.410423 -16.010424 45 45 32 
0.781759 6.410423 -16.010424 38 40 29 
0.833876 6.410423 -16.010424 40 43 33 
0.885993 6.410423 -16.010424 39 41 31 
0.938111 6.410423 -16.010424 40 43 32 
0.990228 6.410423 -16.010424 39 40 30 
1.042345 6.410423 -16.010424 45 47 37 
1.094463 6.410423 -16.010424 44 45 35 
1.146580 6.410423 -16.010424 38 42 33 
1.198697 6.410423 -16.010424 39 41 32 
1.250814 6.410423 -16.010424 40 44 34 
1.302932 6.410423 -16.010424 37 42 31 
1.355049 6.410423 -16.010424 40 44 33 
1.407166 6.410423 -16.010424 41 43 33 
1.464052 6.431373 -16.062746 48 49 39 
1.516340 6.431373 -16.062746 42 42 30 
1.568627 6.431373 -16.062746 41 43 32 
1.620915 6.431373 -16.062746 40 41 30 
1.673203 6.431373 -16.062746 40 42 34 
1.719870 6.410423 -16.010424 39 41 30 
1.771987 6.410423 -16.010424 39 43 33 
1.824104 6.410423 -16.010424 44 47 35 
1.876222 6.410423 -16.010424 53 53 41 
1.928339 6.410423 -16.010424 52 51 40 
1.980456 6.410423 -16.010424 54 52 42 
2.032573 6.410423 -16.010424 51 47 37 
2.084691 6.410423 -16.010424 47 48 36 
2.129870 6.389610 -15.958442 50 48 36 
2.181818 6.389610 -15.958442 34 43 29 
2.233766 6.389610 -15.958442 39 46 31 
2.285714 6.389610 -15.958442 57 53 42 
2.337662 6.389610 -15.958442 54 51 39 
2.389610 6.389610 -15.958442 55 50 39 
2.433657 6.368932 -15.906796 55 52 37 
2.485437 6.368932 -15.906796 56 52 40 
2.529032 6.348387 -15.855485 39 42 28 
2.580645 6.348387 -15.855485 32 39 26 
2.640777 6.368932 -15.906796 36 40 29 
2.692557 6.368932 -15.906796 36 40 29 
2.744337 6.368932 -15.906796 35 39 27 
2.796117 6.368932 -15.906796 37 41 28 
2.847896 6.368932 -15.906796 35 38 24 
2.899676 6.368932 -15.906796 47 48 34 
2.951456 6.368932 -15.906796 52 49 38 
2.993548 6.348387 -15.855485 50 48 35 
3.045161 6.348387 -15.855485 48 46 33 
3.096774 6.348387 -15.855485 49 47 35 
3.148387 6.348387 -15.855485 44 44 32 
3.210356 6.368932 -15.906796 52 51 38 
3.262136 6.368932 -15.906796 47 46 35 
3.324675 6.389610 -15.958442 49 50 36 
3.376623 6.389610 -15.958442 77 66 47 
3.439739 6.410423 -16.010424 79 61 46 
3.491857 6.410423 -16.010424 31 23 16 
3.543974 6.410423 -16.010424 1 9 4 
3.607843 6.431373 -16.062746 11 15 11 
3.660131 6.431373 -16.062746 6 15 10 
3.712418 6.431373 -16.062746 8 14 9 
3.764706 6.431373 -16.062746 9 18 13 
3.842105 6.473684 -16.168421 8 17 12 
3.907591 6.495049 -16.221783 12 19 13 
3.960396 6.495049 -16.221783 10 18 10 
4.039867 6.538206 -16.329569 12 22 14 
4.120401 6.581940 -16.438797 17 27 18 
4.187920 6.604027 -16.493961 29 33 27 
4.270270 6.648649 -16.605406 7 17 10 
4.338983 6.671186 -16.661695 12 26 16 
4.408163 6.693878 -16.718369 24 35 21 
4.462585 6.693878 -16.718369 40 44 35 
4.532423 6.716723 -16.775427 38 42 31 
4.587031 6.716723 -16.775427 41 45 34 
4.641638 6.716723 -16.775427 39 42 31 
4.696246 6.716723 -16.775427 41 44 35 
4.750853 6.716723 -16.775427 42 44 34 
4.805461 6.716723 -16.775427 38 40 34 
4.860068 6.716723 -16.775427 35 38 30 
4.931507 6.739726 -16.832878 34 40 31 
5.003437 6.762887 -16.890722 36 39 30 
5.058419 6.762887 -16.890722 35 40 30 
5.113402 6.762887 -16.890722 32 39 30 
5.168385 6.762887 -16.890722 33 40 30 
5.223368 6.762887 -16.890722 35 40 28 
5.278350 6.762887 -16.890722 36 42 31 
5.315069 6.739726 -16.832878 33 40 31 
5.297297 6.648649 -16.605406 37 43 30 
5.333333 6.626263 -16.549496 38 42 30 
5.280528 6.495049 -16.221783 40 45 34 
5.298361 6.452459 -16.115410 42 47 36 
5.247589 6.327974 -15.804502 43 48 37 
5.231746 6.247619 -15.603810 46 49 38 
5.265823 6.227848 -15.554431 47 49 40 
5.299685 6.208202 -15.505363 42 47 37 
5.350158 6.208202 -15.505363 43 47 38 
5.383648 6.188679 -15.456604 43 45 33 
5.433962 6.188679 -15.456604 48 50 39 
5.467084 6.169279 -15.408151 51 50 38 
5.517241 6.169279 -15.408151 48 49 39 
5.567398 6.169279 -15.408151 49 47 36 
5.617555 6.169279 -15.408151 48 51 38 
5.650000 6.150000 -15.360001 48 49 35 
5.700000 6.150000 -15.360001 46 49 37 
5.750000 6.150000 -15.360001 47 49 38 
5.800000 6.150000 -15.360001 53 53 40 
5.850000 6.150000 -15.360001 49 49 38 
5.900000 6.150000 -15.360001 49 51 38 
5.950000 6.150000 -15.360001 50 49 37 
6.000000 6.150000 -15.360001 50 51 40 
6.050000 6.150000 -15.360001 47 49 36 
6.119122 6.169279 -15.408151 49 51 38 
6.188679 6.188679 -15.456604 48 49 36 
6.219436 6.169279 -15.408151 49 50 39 
6.250000 6.150000 -15.360001 48 48 35 
6.300000 6.150000 -15.360001 49 52 37 
6.350000 6.150000 -15.360001 46 49 36 
6.400000 6.150000 -15.360001 49 50 38 
5.883598 5.206349 -13.003175 49 48 37 
5.941645 5.220159 -13.037666 50 51 39 
6.000000 5.234043 -13.072341 50 52 40 
6.074866 5.262032 -13.142246 50 50 41 
6.134048 5.276139 -13.177481 49 49 39 
6.193548 5.290323 -13.212904 49 50 38 
6.253369 5.304582 -13.248518 50 51 37 
6.296496 5.304582 -13.248518 50 52 40 
6.356757 5.318919 -13.284325 49 49 37 
6.382750 5.304582 -13.248518 49 51 40 
6.408602 5.290323 -13.212904 49 50 41 
6.451613 5.290323 -13.212904 48 51 39 
6.494624 5.290323 -13.212904 48 49 36 
5.516129 3.967742 -9.909678 48 48 37 
5.548387 3.967742 -9.909678 50 49 37 
5.580645 3.967742 -9.909678 48 48 35 
5.612903 3.967742 -9.909678 49 52 38 
5.645161 3.967742 -9.909678 46 47 36 
5.677419 3.967742 -9.909678 49 50 39 
5.709677 3.967742 -9.909678 46 47 35 
5.741935 3.967742 -9.909678 49 50 39 
5.785859 3.975758 -9.929697 47 48 37 
8.320000 5.622857 -14.043429 47 49 36 
8.341881 5.606838 -14.003419 47 48 36 
8.387465 5.606838 -14.003419 49 50 40 
8.433048 5.606838 -14.003419 45 46 34 
8.478633 5.606838 -14.003419 46 50 38 
8.524217 5.606838 -14.003419 47 48 36 
8.569800 5.606838 -14.003419 47 48 37 
-4.210526 6.421052 -16.168421 86 84 69 
-4.157895 6.421052 -16.168421 120 107 94 
-4.105263 6.421052 -16.168421 97 91 75 
-4.052631 6.421052 -16.168421 107 96 81 
-4.000000 6.421052 -16.168421 105 95 80 
-3.947368 6.421052 -16.168421 105 97 81 
-3.894737 6.421052 -16.168421 113 101 92 
-3.842105 6.421052 -16.168421 34 33 31 
-3.789474 6.421052 -16.168421 9 22 28 
-3.736842 6.421052 -16.168421 35 44 54 
-3.684211 6.421052 -16.168421 24 37 45 
-3.631579 6.421052 -16.168421 26 37 46 
-3.578947 6.421052 -16.168421 23 39 46 
-3.526316 6.421052 -16.168421 21 36 44 
-3.473684 6.421052 -16.168421 24 36 46 
-3.421053 6.421052 -16.168421 20 32 43 
-3.368421 6.421052 -16.168421 20 36 44 
-3.315789 6.421052 -16.168421 18 33 42 
-3.263158 6.421052 -16.168421 21 34 45 
-3.210526 6.421052 -16.168421 13 27 36 
-3.157895 6.421052 -16.168421 7 20 26 
-3.105263 6.421052 -16.168421 19 36 41 
-3.052632 6.421052 -16.168421 41 51 59 
-3.000000 6.421052 -16.168421 33 45 52 
-2.947368 6.421052 -16.168421 35 47 55 
-2.894737 6.421052 -16.168421 33 45 53 
-2.842105 6.421052 -16.168421 33 45 56 
-2.789474 6.421052 -16.168421 30 41 50 
-2.736842 6.421052 -16.168421 29 41 51 
-2.684211 6.421052 -16.168421 26 38 48 
-2.631579 6.421052 -16.168421 29 42 51 
-2.578947 6.421052 -16.168421 25 38 48 
-2.526316 6.421052 -16.168421 20 32 43 
-2.473684 6.421052 -16.168421 5 18 22 
-2.421053 6.421052 -16.168421 7 21 24 
-2.368421 6.421052 -16.168421 15 32 42 
-2.315789 6.421052 -16.168421 27 41 51 
-2.263158 6.421052 -16.168421 27 40 49 
-2.210526 6.421052 -16.168421 30 42 49 
-2.157895 6.421052 -16.168421 32 44 49 
-2.105263 6.421052 -16.168421 32 44 51 
-2.052632 6.421052 -16.168421 32 44 51 
-2.000000 6.421052 -16.168421 35 48 54 
-1.947368 6.421052 -16.168421 37 47 52 
-1.894737 6.421052 -16.168421 39 50 57 
-1.836066 6.400000 -16.115410 38 46 54 
-1.777778 6.379085 -16.062746 15 26 30 
-1.714286 6.337662 -15.958442 5 21 13 
-1.662338 6.337662 -15.958442 51 62 51 
-1.610390 6.337662 -15.958442 68 63 50 
-1.558442 6.337662 -15.958442 60 59 42 
-1.506493 6.337662 -15.958442 58 60 47 
-1.454545 6.337662 -15.958442 62 64 52 
-1.402597 6.337662 -15.958442 63 62 49 
-1.350649 6.337662 -15.958442 51 49 43 
-1.298701 6.337662 -15.958442 4 7 4 
-1.242718 6.317152 -15.906796 16 31 18 
-1.187097 6.296774 -15.855485 84 84 74 
-1.131833 6.276527 -15.804502 80 78 67 
-1.076923 6.256410 -15.753847 82 79 68 
-1.025641 6.256410 -15.753847 70 64 57 
-0.980645 6.296774 -15.855485 15 15 11 
-0.929032 6.296774 -15.855485 13 19 9 
-0.880259 6.317152 -15.906796 43 41 22 
-0.833876 6.358306 -16.010424 89 77 51 
-0.781759 6.358306 -16.010424 90 73 49 
-0.729642 6.358306 -16.010424 90 73 48 
-0.677524 6.358306 -16.010424 90 72 46 
-0.625407 6.358306 -16.010424 93 75 49 
-0.573290 6.358306 -16.010424 90 73 47 
-0.521173 6.358306 -16.010424 92 75 51 
-0.469055 6.358306 -16.010424 90 72 49 
-0.416938 6.358306 -16.010424 92 75 50 
-0.364821 6.358306 -16.010424 90 71 48 
-0.312704 6.358306 -16.010424 91 75 50 
-0.260586 6.358306 -16.010424 91 70 46 
-0.208469 6.358306 -16.010424 90 72 48 
-0.156863 6.379085 -16.062746 90 72 45 
-0.104575 6.379085 -16.062746 93 74 48 
-0.052288 6.379085 -16.062746 89 71 46 
0.000000 6.358306 -16.010424 89 72 47 
0.052117 6.358306 -16.010424 78 64 46 
0.104235 6.358306 -16.010424 53 51 39 
0.156352 6.358306 -16.010424 51 51 41 
0.208469 6.358306 -16.010424 48 48 39 
0.260586 6.358306 -16.010424 47 48 36 
0.312704 6.358306 -16.010424 54 54 45 
0.364821 6.358306 -16.010424 53 52 42 
0.416938 6.358306 -16.010424 52 53 43 
0.469055 6.358306 -16.010424 52 52 40 
0.521173 6.358306 -16.010424 54 55 44 
0.573290 6.358306 -16.010424 53 52 41 
0.625407 6.358306 -16.010424 50 50 41 
0.677524 6.358306 -16.010424 45 46 37 
0.729642 6.358306 -16.010424 36 39 30 
0.781759 6.358306 -16.010424 31 37 27 
0.833876 6.358306 -16.010424 34 39 30 
0.885993 6.358306 -16.010424 32 37 28 
0.938111 6.358306 -16.010424 33 38 29 
0.990228 6.358306 -16.010424 34 38 29 
1.042345 6.358306 -16.010424 40 44 35 
1.094463 6.358306 -16.010424 45 45 36 
1.146580 6.358306 -16.010424 32 37 27 
1.198697 6.358306 -16.010424 34 38 28 
1.250814 6.358306 -16.010424 33 39 30 
1.302932 6.358306 -16.010424 32 37 27 
1.355049 6.358306 -16.010424 33 39 30 
1.407166 6.358306 -16.010424 35 39 30 
1.459283 6.358306 -16.010424 48 49 38 
1.516340 6.379085 -16.062746 36 39 28 
1.568627 6.379085 -16.062746 33 38 30 
1.620915 6.379085 -16.062746 31 39 29 
1.667752 6.358306 -16.010424 33 40 32 
1.719870 6.358306 -16.010424 32 39 28 
1.771987 6.358306 -16.010424 32 40 30 
1.824104 6.358306 -16.010424 43 47 33 
1.876222 6.358306 -16.010424 53 54 44 
1.928339 6.358306 -16.010424 51 51 41 
1.980456 6.358306 -16.010424 52 53 42 
2.032573 6.358306 -16.010424 48 48 37 
2.084691 6.358306 -16.010424 45 49 35 
2.129870 6.337662 -15.958442 43 43 31 
2.181818 6.337662 -15.958442 37 40 27 
2.233766 6.337662 -15.958442 38 43 31 
2.285714 6.337662 -15.958442 48 50 37 
2.337662 6.337662 -15.958442 46 47 32 
2.389610 6.337662 -15.958442 47 49 37 
2.433657 6.317152 -15.906796 45 48 35 
2.485437 6.317152 -15.906796 45 48 34 
2.529032 6.296774 -15.855485 36 39 27 
2.580645 6.296774 -15.855485 47 47 39 
2.640777 6.317152 -15.906796 51 47 40 
2.692557 6.317152 -15.906796 50 48 39 
2.744337 6.317152 -15.906796 48 46 36 
2.796117 6.317152 -15.906796 51 46 39 
2.847896 6.317152 -15.906796 41 39 29 
2.899676 6.317152 -15.906796 31 37 24 
2.951456 6.317152 -15.906796 37 39 28 
2.993548 6.296774 -15.855485 34 38 28 
3.045161 6.296774 -15.855485 29 35 23 
3.096774 6.296774 -15.855485 29 36 23 
3.148387 6.296774 -15.855485 30 36 22 
3.210356 6.317152 -15.906796 40 45 33 
3.272727 6.337662 -15.958442 42 45 32 
3.324675 6.337662 -15.958442 50 52 37 
3.376623 6.337662 -15.958442 78 65 45 
3.439739 6.358306 -16.010424 79 60 46 
3.491857 6.358306 -16.010424 29 23 15 
3.543974 6.358306 -16.010424 1 8 3 
3.607843 6.379085 -16.062746 9 15 11 
3.660131 6.379085 -16.062746 7 15 10 
3.712418 6.379085 -16.062746 9 16 10 
3.777049 6.400000 -16.115410 10 19 13 
3.842105 6.421052 -16.168421 7 16 11 
3.907591 6.442244 -16.221783 11 18 12 
3.960396 6.442244 -16.221783 12 19 13 
4.039867 6.485050 -16.329569 12 21 13 
4.120401 6.528428 -16.438797 18 27 17 
4.216216 6.594594 -16.605406 37 40 35 
4.284746 6.616949 -16.661695 22 25 21 
4.353742 6.639456 -16.718369 8 18 13 
4.408163 6.639456 -16.718369 16 27 18 
4.477816 6.662116 -16.775427 27 38 26 
4.532423 6.662116 -16.775427 42 44 34 
4.587031 6.662116 -16.775427 41 44 34 
4.641638 6.662116 -16.775427 42 42 33 
4.696246 6.662116 -16.775427 44 47 36 
4.750853 6.662116 -16.775427 42 43 33 
4.805461 6.662116 -16.775427 38 40 32 
4.876712 6.684931 -16.832878 33 38 29 
4.931507 6.684931 -16.832878 35 39 31 
5.003437 6.707904 -16.890722 33 38 29 
5.058419 6.707904 -16.890722 34 39 29 
5.113402 6.707904 -16.890722 33 38 28 
5.168385 6.707904 -16.890722 35 41 31 
5.223368 6.707904 -16.890722 33 39 26 
